-402.000000 -420.000000 344.000000
-402.436791 -421.951720 343.998320
-402.873581 -423.903440 343.996639
-403.310372 -425.855160 343.994959
-403.747162 -427.806880 343.993279
-404.183953 -429.758600 343.991598
-404.620744 -431.710320 343.989918
-405.057534 -433.662040 343.988238
-405.494325 -435.613760 343.986557
-405.931115 -437.565480 343.984877
-406.367906 -439.517201 343.983196
-406.804696 -441.468921 343.981516
-407.241487 -443.420641 343.979836
-407.678278 -445.372361 343.978155
-408.115068 -447.324081 343.976475
-408.551859 -449.275801 343.974795
-408.988649 -451.227521 343.973114
-409.425440 -453.179241 343.971434
-409.862231 -455.130961 343.969754
-410.299021 -457.082681 343.968073
-410.735812 -459.034401 343.966393
-411.172602 -460.986121 343.964713
-411.609393 -462.937841 343.963032
-412.046184 -464.889561 343.961352
-412.482974 -466.841281 343.959672
-412.919765 -468.793001 343.957991
-413.356555 -470.744721 343.956311
-413.793346 -472.696441 343.954630
-414.230136 -474.648161 343.952950
-414.666927 -476.599881 343.951270
-415.103718 -478.551602 343.949589
-415.540508 -480.503322 343.947909
-415.977299 -482.455042 343.946229
-416.414089 -484.406762 343.944548
-416.850880 -486.358482 343.942868
-417.287671 -488.310202 343.941188
-417.724461 -490.261922 343.939507
-418.246242 -492.593406 343.937500
-416.867027 -494.041773 343.937500
-415.487813 -495.490140 343.937500
-414.108598 -496.938507 343.937500
-412.729384 -498.386874 343.937500
-411.350169 -499.835241 343.937500
-409.970955 -501.283608 343.937500
-408.591740 -502.731975 343.937500
-407.212525 -504.180342 343.937500
-405.833311 -505.628709 343.937500
-404.454096 -507.077076 343.937500
-403.074882 -508.525443 343.937500
-401.695667 -509.973810 343.937500
-400.316452 -511.422177 343.937500
-398.937238 -512.870544 343.937500
-397.558023 -514.318911 343.937500
-396.178809 -515.767278 343.937500
-394.799594 -517.215646 343.937500
-393.420380 -518.664013 343.937500
-392.041165 -520.112380 343.937500
-390.661950 -521.560747 343.937500
-389.282736 -523.009114 343.937500
-387.903521 -524.457481 343.937500
-386.524307 -525.905848 343.937500
-385.145092 -527.354215 343.937500
-383.765877 -528.802582 343.937500
-382.386663 -530.250949 343.937500
-381.007448 -531.699316 343.937500
-379.628234 -533.147683 343.937500
-378.249019 -534.596050 343.937500
-376.869805 -536.044417 343.937500
-375.490590 -537.492784 343.937500
-374.111375 -538.941151 343.937500
-372.732161 -540.389518 343.937500
-371.352946 -541.837886 343.937500
-369.973732 -543.286253 343.937500
-368.594517 -544.734620 343.937500
-367.215302 -546.182987 343.937500
-365.836088 -547.631354 343.937500
-364.456873 -549.079721 343.937500
-363.077659 -550.528088 343.937500
-361.698444 -551.976455 343.937500
-360.319230 -553.424822 343.937500
-358.940015 -554.873189 343.937500
-357.560800 -556.321556 343.937500
-356.181586 -557.769923 343.937500
-354.802371 -559.218290 343.937500
-353.423157 -560.666657 343.937500
-352.043942 -562.115024 343.937500
-350.664727 -563.563391 343.937500
-349.285513 -565.011758 343.937500
-347.906298 -566.460125 343.937500
-346.527084 -567.908493 343.937500
-345.147869 -569.356860 343.937500
-343.768655 -570.805227 343.937500
-342.389440 -572.253594 343.937500
-341.010225 -573.701961 343.937500
-339.631011 -575.150328 343.937500
-338.251796 -576.598695 343.937500
-336.872582 -578.047062 343.937500
-335.493367 -579.495429 343.937500
-334.114152 -580.943796 343.937500
-332.734938 -582.392163 343.937500
-331.355723 -583.840530 343.937500
-329.976509 -585.288897 343.937500
-328.597294 -586.737264 343.937500
-327.218080 -588.185631 343.937500
-325.838865 -589.633998 343.937500
-324.459650 -591.082365 343.937500
-323.080436 -592.530733 343.937500
-321.701221 -593.979100 343.937500
-320.322007 -595.427467 343.937500
-318.942792 -596.875834 343.937500
-317.563578 -598.324201 343.937500
-316.184363 -599.772568 343.937500
-314.805148 -601.220935 343.937500
-313.425934 -602.669302 343.937500
-312.046719 -604.117669 343.937500
-310.667505 -605.566036 343.937500
-309.288290 -607.014403 343.937500
-307.909075 -608.462770 343.937500
-306.529861 -609.911137 343.937500
-305.150646 -611.359504 343.937500
-303.771432 -612.807871 343.937500
-302.392217 -614.256238 343.937500
-301.013003 -615.704605 343.937500
-299.633788 -617.152973 343.937500
-298.254573 -618.601340 343.937500
-296.875359 -620.049707 343.937500
-295.340722 -621.661288 343.937500
-293.429600 -622.250873 343.937500
-291.518477 -622.840457 343.937500
-289.607354 -623.430041 343.937500
-287.696231 -624.019625 343.937500
-285.785108 -624.609209 343.937500
-283.873985 -625.198794 343.937500
-281.962863 -625.788378 343.937500
-280.051740 -626.377962 343.937500
-278.140617 -626.967546 343.937500
-276.229494 -627.557131 343.937500
-274.318371 -628.146715 343.937500
-272.407248 -628.736299 343.937500
-270.496126 -629.325883 343.937500
-268.585003 -629.915468 343.937500
-266.673880 -630.505052 343.937500
-264.762757 -631.094636 343.937500
-262.851634 -631.684220 343.937500
-260.940512 -632.273804 343.937500
-259.029389 -632.863389 343.937500
-257.118266 -633.452973 343.937500
-255.207143 -634.042557 343.937500
-253.296020 -634.632141 343.937500
-251.384897 -635.221726 343.937500
-249.473775 -635.811310 343.937500
-247.562652 -636.400894 343.937500
-245.651529 -636.990478 343.937500
-243.740406 -637.580063 343.937500
-241.829283 -638.169647 343.937500
-239.918161 -638.759231 343.937500
-238.007038 -639.348815 343.937500
-236.095915 -639.938399 343.937500
-234.184792 -640.527984 343.937500
-232.273669 -641.117568 343.937500
-230.362546 -641.707152 343.937500
-228.451424 -642.296736 343.937500
-226.540301 -642.886321 343.937500
-224.629178 -643.475905 343.937500
-222.718055 -644.065489 343.937500
-220.806932 -644.655073 343.937500
-218.895810 -645.244658 343.937500
-216.984687 -645.834242 343.937500
-215.073564 -646.423826 343.937500
-213.162441 -647.013410 343.937500
-211.251318 -647.602994 343.937500
-209.340195 -648.192579 343.937500
-207.429073 -648.782163 343.937500
-205.517950 -649.371747 343.937500
-203.606827 -649.961331 343.937500
-201.695704 -650.550916 343.937500
-199.784581 -651.140500 343.937500
-197.873458 -651.730084 343.937500
-195.962336 -652.319668 343.937500
-194.051213 -652.909253 343.937500
-192.140090 -653.498837 343.937500
-190.228967 -654.088421 343.937500
-188.317844 -654.678005 343.937500
-186.406722 -655.267589 343.937500
-184.495599 -655.857174 343.937500
-182.584476 -656.446758 343.937500
-180.673353 -657.036342 343.937500
-178.762230 -657.625926 343.937500
-176.851107 -658.215511 343.937500
-174.939985 -658.805095 343.937500
-173.028862 -659.394679 343.937500
-171.117739 -659.984263 343.937500
-169.206616 -660.573848 343.937500
-167.295493 -661.163432 343.937500
-165.384371 -661.753016 343.937500
-163.473248 -662.342600 343.937500
-161.562125 -662.932184 343.937500
-159.651002 -663.521769 343.937500
-157.739879 -664.111353 343.937500
-155.828756 -664.700937 343.937500
-153.917634 -665.290521 343.937500
-152.006511 -665.880106 343.937500
-150.095388 -666.469690 343.937500
-148.184265 -667.059274 343.937500
-146.273142 -667.648858 343.937500
-144.362020 -668.238443 343.937500
-142.450897 -668.828027 343.937500
-140.539774 -669.417611 343.937500
-138.628651 -670.007195 343.937500
-136.717528 -670.596779 343.937500
-134.806405 -671.186364 343.937500
-132.895283 -671.775948 343.937500
-129.375000 -672.861960 343.937500
-128.991949 -672.861960 341.974525
-128.608897 -672.861960 340.011550
-128.225846 -672.861960 338.048574
-127.842795 -672.861960 336.085599
-127.459744 -672.861960 334.122624
-127.076692 -672.861960 332.159649
-126.693641 -672.861960 330.196673
-126.310590 -672.861960 328.233698
-125.927538 -672.861960 326.270723
-125.544487 -672.861960 324.307748
-125.161436 -672.861960 322.344773
-124.778385 -672.861960 320.381797
-124.395333 -672.861960 318.418822
-124.012282 -672.861960 316.455847
-123.629231 -672.861960 314.492872
-123.246179 -672.861960 312.529896
-122.863128 -672.861960 310.566921
-122.480077 -672.861960 308.603946
-122.097026 -672.861960 306.640971
-121.581671 -672.861960 304.000000
-123.575591 -672.905998 303.850519
-125.569511 -672.950035 303.701037
-127.563431 -672.994072 303.551556
-129.557351 -673.038110 303.402074
-131.551270 -673.082147 303.252593
-133.545190 -673.126184 303.103112
-135.539110 -673.170222 302.953630
-137.533030 -673.214259 302.804149
-139.526949 -673.258296 302.654667
-141.520869 -673.302334 302.505186
-143.514789 -673.346371 302.355705
-145.508709 -673.390408 302.206223
-147.502628 -673.434446 302.056742
-149.496548 -673.478483 301.907261
-151.490468 -673.522520 301.757779
-153.484388 -673.566558 301.608298
-155.478307 -673.610595 301.458816
-157.472227 -673.654632 301.309335
-159.466147 -673.698670 301.159854
-161.460067 -673.742707 301.010372
-163.453987 -673.786744 300.860891
-165.447906 -673.830782 300.711409
-167.441826 -673.874819 300.561928
-169.435746 -673.918856 300.412447
-171.429666 -673.962894 300.262965
-173.423585 -674.006931 300.113484
-175.417505 -674.050968 299.964002
-177.411425 -674.095006 299.814521
-179.405345 -674.139043 299.665040
-181.399264 -674.183080 299.515558
-183.393184 -674.227118 299.366077
-185.387104 -674.271155 299.216596
-187.381024 -674.315192 299.067114
-189.374943 -674.359230 298.917633
-191.368863 -674.403267 298.768151
-193.362783 -674.447304 298.618670
-195.356703 -674.491342 298.469189
-197.350623 -674.535379 298.319707
-199.344542 -674.579416 298.170226
-201.338462 -674.623454 298.020744
-203.332382 -674.667491 297.871263
-205.326302 -674.711528 297.721782
-207.320221 -674.755566 297.572300
-209.314141 -674.799603 297.422819
-211.308061 -674.843640 297.273337
-213.301981 -674.887678 297.123856
-215.295900 -674.931715 296.974375
-217.289820 -674.975752 296.824893
-219.283740 -675.019790 296.675412
-221.277660 -675.063827 296.525931
-223.271579 -675.107864 296.376449
-225.265499 -675.151902 296.226968
-227.259419 -675.195939 296.077486
-229.253339 -675.239976 295.928005
-231.247259 -675.284014 295.778524
-233.241178 -675.328051 295.629042
-235.235098 -675.372088 295.479561
-237.229018 -675.416126 295.330079
-239.222938 -675.460163 295.180598
-241.216857 -675.504200 295.031117
-243.210777 -675.548238 294.881635
-245.204697 -675.592275 294.732154
-247.198617 -675.636312 294.582672
-249.192536 -675.680350 294.433191
-251.186456 -675.724387 294.283710
-253.180376 -675.768424 294.134228
-255.174296 -675.812462 293.984747
-257.168215 -675.856499 293.835266
-259.162135 -675.900536 293.685784
-261.156055 -675.944574 293.536303
-263.149975 -675.988611 293.386821
-265.143895 -676.032649 293.237340
-267.137814 -676.076686 293.087859
-269.131734 -676.120723 292.938377
-271.125654 -676.164761 292.788896
-273.119574 -676.208798 292.639414
-275.113493 -676.252835 292.489933
-277.107413 -676.296873 292.340452
-279.101333 -676.340910 292.190970
-281.095253 -676.384947 292.041489
-283.089172 -676.428985 291.892007
-285.083092 -676.473022 291.742526
-287.077012 -676.517059 291.593045
-289.070932 -676.561097 291.443563
-291.064851 -676.605134 291.294082
-293.058771 -676.649171 291.144601
-295.052691 -676.693209 290.995119
-297.046611 -676.737246 290.845638
-299.040531 -676.781283 290.696156
-301.034450 -676.825321 290.546675
-303.028370 -676.869358 290.397194
-305.022290 -676.913395 290.247712
-307.016210 -676.957433 290.098231
-309.010129 -677.001470 289.948749
-311.004049 -677.045507 289.799268
-312.997969 -677.089545 289.649787
-314.991889 -677.133582 289.500305
-316.985808 -677.177619 289.350824
-318.979728 -677.221657 289.201342
-320.973648 -677.265694 289.051861
-322.967568 -677.309731 288.902380
-324.961487 -677.353769 288.752898
-326.955407 -677.397806 288.603417
-328.949327 -677.441843 288.453936
-330.943247 -677.485881 288.304454
-332.937166 -677.529918 288.154973
-334.931086 -677.573955 288.005491
-336.925006 -677.617993 287.856010
-338.918926 -677.662030 287.706529
-340.912846 -677.706067 287.557047
-342.906765 -677.750105 287.407566
-344.900685 -677.794142 287.258084
-346.894605 -677.838179 287.108603
-348.888525 -677.882217 286.959122
-350.882444 -677.926254 286.809640
-352.876364 -677.970291 286.660159
-354.870284 -678.014329 286.510677
-356.864204 -678.058366 286.361196
-358.858123 -678.102403 286.211715
-360.852043 -678.146441 286.062233
-362.845963 -678.190478 285.912752
-364.839883 -678.234515 285.763271
-366.833802 -678.278553 285.613789
-368.827722 -678.322590 285.464308
-370.821642 -678.366627 285.314826
-372.815562 -678.410665 285.165345
-374.809482 -678.454702 285.015864
-376.803401 -678.498739 284.866382
-378.797321 -678.542777 284.716901
-380.791241 -678.586814 284.567419
-382.785161 -678.630851 284.417938
-384.779080 -678.674889 284.268457
-386.773000 -678.718926 284.118975
-388.766920 -678.762963 283.969494
-390.760840 -678.807001 283.820012
-392.754759 -678.851038 283.670531
-394.748679 -678.895075 283.521050
-396.742599 -678.939113 283.371568
-398.736519 -678.983150 283.222087
-400.730438 -679.027187 283.072606
-402.724358 -679.071225 282.923124
-404.718278 -679.115262 282.773643
-406.712198 -679.159299 282.624161
-408.706118 -679.203337 282.474680
-410.700037 -679.247374 282.325199
-412.693957 -679.291411 282.175717
-414.687877 -679.335449 282.026236
-416.681797 -679.379486 281.876754
-418.675716 -679.423523 281.727273
-420.669636 -679.467561 281.577792
-422.663556 -679.511598 281.428310
-424.657476 -679.555635 281.278829
-426.651395 -679.599673 281.129347
-428.645315 -679.643710 280.979866
-430.639235 -679.687747 280.830385
-432.633155 -679.731785 280.680903
-434.627074 -679.775822 280.531422
-436.620994 -679.819859 280.381941
-438.614914 -679.863897 280.232459
-440.608834 -679.907934 280.082978
-442.602754 -679.951971 279.933496
-444.596673 -679.996009 279.784015
-446.590593 -680.040046 279.634534
-448.584513 -680.084083 279.485052
-450.578433 -680.128121 279.335571
-452.572352 -680.172158 279.186089
-454.566272 -680.216195 279.036608
-456.560192 -680.260233 278.887127
-458.554112 -680.304270 278.737645
-460.548031 -680.348307 278.588164
-462.541951 -680.392345 278.438682
-464.535871 -680.436382 278.289201
-466.529791 -680.480419 278.139720
-468.523710 -680.524457 277.990238
-470.517630 -680.568494 277.840757
-472.511550 -680.612531 277.691276
-474.505470 -680.656569 277.541794
-476.499390 -680.700606 277.392313
-478.493309 -680.744643 277.242831
-480.487229 -680.788681 277.093350
-482.481149 -680.832718 276.943869
-484.475069 -680.876755 276.794387
-486.468988 -680.920793 276.644906
-488.462908 -680.964830 276.495424
-490.456828 -681.008867 276.345943
-492.450748 -681.052905 276.196462
-494.444667 -681.096942 276.046980
-496.438587 -681.140979 275.897499
-498.432507 -681.185017 275.748017
-500.426427 -681.229054 275.598536
-502.420346 -681.273092 275.449055
-504.414266 -681.317129 275.299573
-506.408186 -681.361166 275.150092
-508.402106 -681.405204 275.000611
-510.396026 -681.449241 274.851129
-512.389945 -681.493278 274.701648
-514.383865 -681.537316 274.552166
-516.377785 -681.581353 274.402685
-518.371705 -681.625390 274.253204
-520.365624 -681.669428 274.103722
-522.359544 -681.713465 273.954241
-524.353464 -681.757502 273.804759
-526.347384 -681.801540 273.655278
-528.341303 -681.845577 273.505797
-530.335223 -681.889614 273.356315
-532.329143 -681.933652 273.206834
-534.323063 -681.977689 273.057352
-536.316982 -682.021726 272.907871
-538.310902 -682.065764 272.758390
-540.304822 -682.109801 272.608908
-542.298742 -682.153838 272.459427
-544.292662 -682.197876 272.309946
-546.286581 -682.241913 272.160464
-548.280501 -682.285950 272.010983
-550.274421 -682.329988 271.861501
-552.268341 -682.374025 271.712020
-554.262260 -682.418062 271.562539
-556.256180 -682.462100 271.413057
-558.250100 -682.506137 271.263576
-560.244020 -682.550174 271.114094
-562.237939 -682.594212 270.964613
-564.231859 -682.638249 270.815132
-566.225779 -682.682286 270.665650
-568.219699 -682.726324 270.516169
-570.213618 -682.770361 270.366687
-572.207538 -682.814398 270.217206
-574.201458 -682.858436 270.067725
-576.195378 -682.902473 269.918243
-578.189298 -682.946510 269.768762
-580.183217 -682.990548 269.619281
-582.177137 -683.034585 269.469799
-584.171057 -683.078622 269.320318
-586.164977 -683.122660 269.170836
-588.158896 -683.166697 269.021355
-590.152816 -683.210734 268.871874
-592.146736 -683.254772 268.722392
-594.140656 -683.298809 268.572911
-596.134575 -683.342846 268.423429
-598.128495 -683.386884 268.273948
-600.122415 -683.430921 268.124467
-602.116335 -683.474958 267.974985
-604.110254 -683.518996 267.825504
-606.104174 -683.563033 267.676022
-608.098094 -683.607070 267.526541
-610.092014 -683.651108 267.377060
-612.085934 -683.695145 267.227578
-614.079853 -683.739182 267.078097
-616.073773 -683.783220 266.928616
-618.067693 -683.827257 266.779134
-620.061613 -683.871294 266.629653
-622.055532 -683.915332 266.480171
-624.049452 -683.959369 266.330690
-626.043372 -684.003406 266.181209
-628.037292 -684.047444 266.031727
-630.031211 -684.091481 265.882246
-633.788343 -684.174460 265.600579
-634.296985 -684.174460 263.666339
-634.805626 -684.174460 261.732099
-635.314268 -684.174460 259.797860
-635.822910 -684.174460 257.863620
-636.331552 -684.174460 255.929380
-636.840193 -684.174460 253.995140
-637.348835 -684.174460 252.060900
-637.857477 -684.174460 250.126661
-638.366119 -684.174460 248.192421
-638.874760 -684.174460 246.258181
-639.383402 -684.174460 244.323941
-639.892044 -684.174460 242.389701
-640.400686 -684.174460 240.455462
-640.909327 -684.174460 238.521222
-641.417969 -684.174460 236.586982
-641.926611 -684.174460 234.652742
-642.435253 -684.174460 232.718502
-642.943894 -684.174460 230.784263
-643.452536 -684.174460 228.850023
-643.961178 -684.174460 226.915783
-644.469820 -684.174460 224.981543
-644.978461 -684.174460 223.047303
-645.487103 -684.174460 221.113064
-645.995745 -684.174460 219.178824
